-104.000000 488.000000 208.000000
-105.863133 487.841210 207.290408
-107.726266 487.682420 206.580816
-109.589400 487.523631 205.871225
-111.452533 487.364841 205.161633
-113.315666 487.206051 204.452041
-115.178799 487.047261 203.742449
-117.041932 486.888472 203.032858
-118.905066 486.729682 202.323266
-120.768199 486.570892 201.613674
-122.631332 486.412102 200.904082
-124.494465 486.253313 200.194491
-126.357599 486.094523 199.484899
-128.220732 485.935733 198.775307
-130.083865 485.776943 198.065715
-131.946998 485.618154 197.356124
-133.810131 485.459364 196.646532
-135.673265 485.300574 195.936940
-137.536398 485.141784 195.227348
-139.399531 484.982995 194.517757
-141.262664 484.824205 193.808165
-143.125797 484.665415 193.098573
-144.988931 484.506625 192.388981
-146.852064 484.347835 191.679390
-148.715197 484.189046 190.969798
-150.578330 484.030256 190.260206
-152.441463 483.871466 189.550614
-154.304597 483.712676 188.841023
-156.167730 483.553887 188.131431
-158.030863 483.395097 187.421839
-159.893996 483.236307 186.712247
-161.757130 483.077517 186.002656
-163.620263 482.918728 185.293064
-165.483396 482.759938 184.583472
-167.346529 482.601148 183.873880
-169.209662 482.442358 183.164289
-171.072796 482.283569 182.454697
-172.935929 482.124779 181.745105
-174.799062 481.965989 181.035513
-176.662195 481.807199 180.325922
-178.525328 481.648410 179.616330
-180.388462 481.489620 178.906738
-182.251595 481.330830 178.197146
-184.114728 481.172040 177.487555
-185.977861 481.013250 176.777963
-187.840994 480.854461 176.068371
-189.704128 480.695671 175.358779
-192.000000 480.500000 174.484375
-193.405932 479.108714 174.188269
-194.811863 477.717427 173.892163
-196.217795 476.326141 173.596057
-197.623726 474.934854 173.299951
-199.029658 473.543568 173.003845
-200.435589 472.152282 172.707739
-201.841521 470.760995 172.411633
-203.247452 469.369709 172.115527
-204.653384 467.978422 171.819421
-206.059315 466.587136 171.523315
-207.465247 465.195850 171.227209
-208.871178 463.804563 170.931103
-210.277110 462.413277 170.634997
-211.683041 461.021991 170.338891
-213.088973 459.630704 170.042785
-214.494904 458.239418 169.746679
-215.900836 456.848131 169.450573
-217.306767 455.456845 169.154467
-218.712699 454.065559 168.858361
-220.118630 452.674272 168.562255
-221.524562 451.282986 168.266149
-222.930493 449.891699 167.970043
-224.336425 448.500413 167.673937
-225.742356 447.109127 167.377831
-227.148288 445.717840 167.081725
-228.554219 444.326554 166.785619
-229.960151 442.935267 166.489513
-231.366082 441.543981 166.193407
-232.772014 440.152695 165.897300
-234.177945 438.761408 165.601194
-235.583877 437.370122 165.305088
-236.989808 435.978836 165.008982
-238.395740 434.587549 164.712876
-240.000000 433.000000 164.375000
-241.380451 431.684939 163.770873
-242.760902 430.369878 163.166746
-244.141353 429.054817 162.562619
-245.521804 427.739755 161.958492
-246.902255 426.424694 161.354365
-248.282706 425.109633 160.750238
-249.663156 423.794572 160.146111
-251.043607 422.479511 159.541984
-252.424058 421.164450 158.937857
-253.804509 419.849389 158.333730
-255.184960 418.534327 157.729603
-256.565411 417.219266 157.125476
-257.945862 415.904205 156.521349
-259.326313 414.589144 155.917222
-260.706764 413.274083 155.313095
-262.087215 411.959022 154.708968
-263.467666 410.643961 154.104841
-264.848117 409.328899 153.500714
-266.228567 408.013838 152.896587
-267.609018 406.698777 152.292460
-268.989469 405.383716 151.688333
-270.369920 404.068655 151.084205
-271.750371 402.753594 150.480078
-273.130822 401.438533 149.875951
-274.511273 400.123472 149.271824
-275.891724 398.808410 148.667697
-277.272175 397.493349 148.063570
-278.652626 396.178288 147.459443
-280.033077 394.863227 146.855316
-281.413528 393.548166 146.251189
-282.793978 392.233105 145.647062
-284.174429 390.918044 145.042935
-285.554880 389.602982 144.438808
-286.935331 388.287921 143.834681
-288.315782 386.972860 143.230554
-289.696233 385.657799 142.626427
-291.076684 384.342738 142.022300
-292.457135 383.027677 141.418173
-293.837586 381.712616 140.814046
-295.218037 380.397554 140.209919
-296.598488 379.082493 139.605792
-297.978939 377.767432 139.001665
-299.359390 376.452371 138.397538
-300.739840 375.137310 137.793411
-302.120291 373.822249 137.189284
-304.000000 372.031579 136.366667
-304.865428 370.235134 136.521001
-305.730855 368.438688 136.675336
-306.596283 366.642243 136.829670
-307.461710 364.845797 136.984005
-308.327138 363.049352 137.138340
-309.192565 361.252907 137.292674
-310.057993 359.456461 137.447009
-310.923420 357.660016 137.601343
-311.788848 355.863571 137.755678
-312.654275 354.067125 137.910012
-313.519703 352.270680 138.064347
-314.385131 350.474234 138.218682
-315.250558 348.677789 138.373016
-316.115986 346.881344 138.527351
-316.981413 345.084898 138.681685
-317.846841 343.288453 138.836020
-318.712268 341.492007 138.990354
-319.577696 339.695562 139.144689
-320.443123 337.899117 139.299024
-321.308551 336.102671 139.453358
-322.173978 334.306226 139.607693
-323.039406 332.509781 139.762027
-323.904833 330.713335 139.916362
-324.770261 328.916890 140.070697
-325.635689 327.120444 140.225031
-326.501116 325.323999 140.379366
-327.366544 323.527554 140.533700
-328.231971 321.731108 140.688035
-329.097399 319.934663 140.842369
-329.962826 318.138218 140.996704
-330.828254 316.341772 141.151039
-331.693681 314.545327 141.305373
-332.559109 312.748881 141.459708
-333.424536 310.952436 141.614042
-334.289964 309.155991 141.768377
-335.155392 307.359545 141.922711
-336.020819 305.563100 142.077046
-336.886247 303.766654 142.231381
-337.751674 301.970209 142.385715
-338.617102 300.173764 142.540050
-339.482529 298.377318 142.694384
-340.347957 296.580873 142.848719
-341.213384 294.784428 143.003054
-342.078812 292.987982 143.157388
-342.944239 291.191537 143.311723
-344.000000 289.000000 143.500000
-345.997236 288.894882 143.500000
-347.994471 288.789765 143.500000
-349.991707 288.684647 143.500000
-351.988943 288.579529 143.500000
-353.986178 288.474412 143.500000
-355.983414 288.369294 143.500000
-357.980650 288.264176 143.500000
-359.977885 288.159059 143.500000
-361.975121 288.053941 143.500000
-363.972357 287.948823 143.500000
-365.969592 287.843706 143.500000
-367.966828 287.738588 143.500000
-369.964064 287.633470 143.500000
-371.961299 287.528353 143.500000
-373.958535 287.423235 143.500000
-375.955771 287.318117 143.500000
-377.953006 287.213000 143.500000
-379.950242 287.107882 143.500000
-381.947478 287.002764 143.500000
-383.944713 286.897647 143.500000
-385.941949 286.792529 143.500000
-387.939184 286.687411 143.500000
-389.936420 286.582294 143.500000
-391.933656 286.477176 143.500000
-393.930891 286.372058 143.500000
-395.928127 286.266941 143.500000
-397.925363 286.161823 143.500000
-399.922598 286.056705 143.500000
-401.919834 285.951588 143.500000
-403.917070 285.846470 143.500000
-405.914305 285.741352 143.500000
-407.911541 285.636235 143.500000
-409.908777 285.531117 143.500000
-411.906012 285.425999 143.500000
-413.903248 285.320882 143.500000
-415.900484 285.215764 143.500000
-417.897719 285.110646 143.500000
-419.894955 285.005529 143.500000
-421.892191 284.900411 143.500000
-423.889426 284.795293 143.500000
-425.886662 284.690176 143.500000
-427.883898 284.585058 143.500000
-429.881133 284.479940 143.500000
-431.878369 284.374823 143.500000
-433.875605 284.269705 143.500000
-435.872840 284.164587 143.500000
-437.870076 284.059470 143.500000
-439.867312 283.954352 143.500000
-441.864547 283.849234 143.500000
-443.861783 283.744117 143.500000
-445.859019 283.638999 143.500000
-447.856254 283.533881 143.500000
-449.853490 283.428764 143.500000
-451.850726 283.323646 143.500000
-453.847961 283.218528 143.500000
-455.845197 283.113411 143.500000
-457.842433 283.008293 143.500000
-459.839668 282.903175 143.500000
-461.836904 282.798058 143.500000
-463.834140 282.692940 143.500000
-465.831375 282.587822 143.500000
-467.828611 282.482705 143.500000
-469.825846 282.377587 143.500000
-471.823082 282.272469 143.500000
-473.820318 282.167352 143.500000
-475.817553 282.062234 143.500000
-477.814789 281.957116 143.500000
-479.812025 281.851999 143.500000
-481.809260 281.746881 143.500000
-483.806496 281.641763 143.500000
-485.803732 281.536646 143.500000
-487.800967 281.431528 143.500000
-489.798203 281.326410 143.500000
-491.795439 281.221293 143.500000
-493.792674 281.116175 143.500000
-496.000000 281.000000 143.500000
-497.602463 279.851967 143.162167
-499.204926 278.703933 142.824335
-500.807390 277.555900 142.486502
-502.409853 276.407867 142.148669
-504.012316 275.259833 141.810836
-505.614779 274.111800 141.473004
-507.217243 272.963766 141.135171
-508.819706 271.815733 140.797338
-510.422169 270.667700 140.459505
-512.024632 269.519666 140.121673
-513.627096 268.371633 139.783840
-515.229559 267.223600 139.446007
-516.832022 266.075566 139.108174
-518.434485 264.927533 138.770342
-520.036949 263.779500 138.432509
-521.639412 262.631466 138.094676
-523.241875 261.483433 137.756844
-524.844338 260.335399 137.419011
-526.446802 259.187366 137.081178
-528.049265 258.039333 136.743345
-529.651728 256.891299 136.405513
-531.254191 255.743266 136.067680
-532.856655 254.595233 135.729847
-534.459118 253.447199 135.392014
-536.061581 252.299166 135.054182
-537.664044 251.151132 134.716349
-539.266507 250.003099 134.378516
-540.868971 248.855066 134.040683
-542.471434 247.707032 133.702851
-544.073897 246.558999 133.365018
-545.676360 245.410966 133.027185
-547.278824 244.262932 132.689352
-548.881287 243.114899 132.351520
-550.483750 241.966866 132.013687
-552.086213 240.818832 131.675854
-553.688677 239.670799 131.338022
-555.291140 238.522765 131.000189
-556.893603 237.374732 130.662356
-558.496066 236.226699 130.324523
-560.098530 235.078665 129.986691
-561.700993 233.930632 129.648858
-563.303456 232.782599 129.311025
-564.905919 231.634565 128.973192
-566.508383 230.486532 128.635360
-568.110846 229.338499 128.297527
-569.713309 228.190465 127.959694
-571.315772 227.042432 127.621861
-572.918236 225.894398 127.284029
-574.520699 224.746365 126.946196
-576.123162 223.598332 126.608363
-577.725625 222.450298 126.270531
-579.328088 221.302265 125.932698
-580.930552 220.154232 125.594865
-582.533015 219.006198 125.257032
-584.135478 217.858165 124.919200
-585.737941 216.710132 124.581367
-587.340405 215.562098 124.243534
-588.942868 214.414065 123.905701
-590.545331 213.266031 123.567869
-592.147794 212.117998 123.230036
-593.750258 210.969965 122.892203
-595.352721 209.821931 122.554370
-596.955184 208.673898 122.216538
-598.557647 207.525865 121.878705
-600.160111 206.377831 121.540872
-601.762574 205.229798 121.203039
-603.365037 204.081764 120.865207
-604.967500 202.933731 120.527374
-606.569964 201.785698 120.189541
-608.172427 200.637664 119.851709
-609.774890 199.489631 119.513876
-611.377353 198.341598 119.176043
-612.979816 197.193564 118.838210
-614.582280 196.045531 118.500378
-616.184743 194.897498 118.162545
-617.787206 193.749464 117.824712
-619.389669 192.601431 117.486879
-620.992133 191.453397 117.149047
-622.594596 190.305364 116.811214
-624.197059 189.157331 116.473381
-625.799522 188.009297 116.135548
-627.401986 186.861264 115.797716
-629.004449 185.713231 115.459883
-630.606912 184.565197 115.122050
-632.209375 183.417164 114.784218
-633.811839 182.269131 114.446385
-635.414302 181.121097 114.108552
-637.016765 179.973064 113.770719
-638.619228 178.825030 113.432887
-640.221692 177.676997 113.095054
-641.824155 176.528964 112.757221
-643.426618 175.380930 112.419388
-645.029081 174.232897 112.081556
-646.631545 173.084864 111.743723
-648.234008 171.936830 111.405890
-649.836471 170.788797 111.068057
-651.438934 169.640764 110.730225
-653.041397 168.492730 110.392392
-654.643861 167.344697 110.054559
-656.246324 166.196663 109.716726
-657.848787 165.048630 109.378894
-659.451250 163.900597 109.041061
-661.053714 162.752563 108.703228
-662.656177 161.604530 108.365396
-664.258640 160.456497 108.027563
-665.861103 159.308463 107.689730
-667.463567 158.160430 107.351897
-669.066030 157.012397 107.014065
-670.668493 155.864363 106.676232
-672.270956 154.716330 106.338399
-673.873420 153.568296 106.000566
-675.475883 152.420263 105.662734
-677.078346 151.272230 105.324901
-678.680809 150.124196 104.987068
-680.283273 148.976163 104.649235
-681.885736 147.828130 104.311403
-683.488199 146.680096 103.973570
-685.090662 145.532063 103.635737
-686.693126 144.384029 103.297905
-688.295589 143.235996 102.960072
-689.898052 142.087963 102.622239
-691.500515 140.939929 102.284406
-693.102978 139.791896 101.946574
-694.705442 138.643863 101.608741
-696.307905 137.495829 101.270908
-697.910368 136.347796 100.933075
-699.512831 135.199763 100.595243
-701.115295 134.051729 100.257410
-702.717758 132.903696 99.919577
-704.320221 131.755662 99.581744
-705.922684 130.607629 99.243912
-707.525148 129.459596 98.906079
-709.127611 128.311562 98.568246
-710.730074 127.163529 98.230413
-712.332537 126.015496 97.892581
-713.935001 124.867462 97.554748
-715.537464 123.719429 97.216915
-717.139927 122.571396 96.879083
-718.742390 121.423362 96.541250
-720.344854 120.275329 96.203417
-721.947317 119.127295 95.865584
-723.549780 117.979262 95.527752
-725.152243 116.831229 95.189919
-726.754707 115.683195 94.852086
-728.357170 114.535162 94.514253
-729.959633 113.387129 94.176421
-731.562096 112.239095 93.838588
-733.164559 111.091062 93.500755
-734.767023 109.943029 93.162922
-736.369486 108.794995 92.825090
-737.971949 107.646962 92.487257
-739.574412 106.498928 92.149424
-741.176876 105.350895 91.811592
-742.779339 104.202862 91.473759
-744.381802 103.054828 91.135926
-745.984265 101.906795 90.798093
-747.586729 100.758762 90.460261
-749.189192 99.610728 90.122428
-750.791655 98.462695 89.784595
-752.394118 97.314661 89.446762
-753.996582 96.166628 89.108930
-755.599045 95.018595 88.771097
-757.201508 93.870561 88.433264
-758.803971 92.722528 88.095431
-760.406435 91.574495 87.757599
-762.008898 90.426461 87.419766
-763.611361 89.278428 87.081933
-765.213824 88.130395 86.744100
-766.816287 86.982361 86.406268
-768.418751 85.834328 86.068435
-770.021214 84.686294 85.730602
-771.623677 83.538261 85.392770
-773.226140 82.390228 85.054937
-774.828604 81.242194 84.717104
-776.431067 80.094161 84.379271
-778.033530 78.946128 84.041439
-779.635993 77.798094 83.703606
-781.238457 76.650061 83.365773
-782.840920 75.502028 83.027940
-784.443383 74.353994 82.690108
-786.045846 73.205961 82.352275
-787.648310 72.057927 82.014442
-789.250773 70.909894 81.676609
-790.853236 69.761861 81.338777
-792.455699 68.613827 81.000944
-794.058163 67.465794 80.663111
-795.660626 66.317761 80.325279
-797.263089 65.169727 79.987446
-798.865552 64.021694 79.649613
-800.468016 62.873661 79.311780
-802.070479 61.725627 78.973948
-803.672942 60.577594 78.636115
-805.275405 59.429560 78.298282
-806.877868 58.281527 77.960449
-808.480332 57.133494 77.622617
-810.082795 55.985460 77.284784
-811.685258 54.837427 76.946951
-813.287721 53.689394 76.609118
-814.890185 52.541360 76.271286
-816.492648 51.393327 75.933453
-818.095111 50.245293 75.595620
-819.697574 49.097260 75.257787
-821.300038 47.949227 74.919955
-822.902501 46.801193 74.582122
-824.504964 45.653160 74.244289
-826.107427 44.505127 73.906457
-827.709891 43.357093 73.568624
-829.312354 42.209060 73.230791
-830.914817 41.061027 72.892958
-832.517280 39.912993 72.555126
-834.119744 38.764960 72.217293
-835.722207 37.616926 71.879460
-837.324670 36.468893 71.541627
-838.927133 35.320860 71.203795
-840.529597 34.172826 70.865962
-842.132060 33.024793 70.528129
-843.734523 31.876760 70.190296
-845.336986 30.728726 69.852464
-846.939449 29.580693 69.514631
-848.541913 28.432660 69.176798
-850.144376 27.284626 68.838966
-851.746839 26.136593 68.501133
-853.349302 24.988559 68.163300
-854.951766 23.840526 67.825467
-856.554229 22.692493 67.487635
-858.156692 21.544459 67.149802
-859.759155 20.396426 66.811969
-861.361619 19.248393 66.474136
-862.964082 18.100359 66.136304
-864.566545 16.952326 65.798471
-866.169008 15.804293 65.460638
-867.771472 14.656259 65.122805
-869.373935 13.508226 64.784973
-870.976398 12.360192 64.447140
-872.578861 11.212159 64.109307
-874.181325 10.064126 63.771474
-875.783788 8.916092 63.433642
-877.386251 7.768059 63.095809
-878.988714 6.620026 62.757976
-880.591178 5.471992 62.420144
-882.193641 4.323959 62.082311
-883.796104 3.175926 61.744478
-885.398567 2.027892 61.406645
-887.001030 0.879859 61.068813
-888.603494 -0.268175 60.730980
-890.205957 -1.416208 60.393147
-891.808420 -2.564241 60.055314
-893.410883 -3.712275 59.717482
-895.013347 -4.860308 59.379649
-896.615810 -6.008341 59.041816
-898.218273 -7.156375 58.703983
-899.820736 -8.304408 58.366151
-901.423200 -9.452442 58.028318
-903.025663 -10.600475 57.690485
-904.628126 -11.748508 57.352653
-906.230589 -12.896542 57.014820
-907.833053 -14.044575 56.676987
-909.435516 -15.192608 56.339154
-911.037979 -16.340642 56.001322
-912.640442 -17.488675 55.663489
-914.242906 -18.636708 55.325656
-915.845369 -19.784742 54.987823
-917.447832 -20.932775 54.649991
-919.050295 -22.080809 54.312158
-920.652758 -23.228842 53.974325
-922.255222 -24.376875 53.636492
-923.857685 -25.524909 53.298660
-925.460148 -26.672942 52.960827
-927.062611 -27.820975 52.622994
-928.665075 -28.969009 52.285161
-930.267538 -30.117042 51.947329
-931.870001 -31.265075 51.609496
-933.472464 -32.413109 51.271663
-935.074928 -33.561142 50.933831
-936.677391 -34.709176 50.595998
-938.279854 -35.857209 50.258165
-939.882317 -37.005242 49.920332
-941.484781 -38.153276 49.582500
-943.087244 -39.301309 49.244667
-944.689707 -40.449342 48.906834
-946.292170 -41.597376 48.569001
-947.894634 -42.745409 48.231169
-949.497097 -43.893442 47.893336
-951.099560 -45.041476 47.555503
-952.702023 -46.189509 47.217670
-954.304487 -47.337543 46.879838
-955.906950 -48.485576 46.542005
-957.509413 -49.633609 46.204172
-959.111876 -50.781643 45.866340
-960.714339 -51.929676 45.528507
-962.316803 -53.077709 45.190674
-963.919266 -54.225743 44.852841
-965.521729 -55.373776 44.515009
-967.124192 -56.521810 44.177176
-968.726656 -57.669843 43.839343
-970.329119 -58.817876 43.501510
-971.931582 -59.965910 43.163678
-973.534045 -61.113943 42.825845
-975.136509 -62.261976 42.488012
-976.738972 -63.410010 42.150179
-978.341435 -64.558043 41.812347
-979.943898 -65.706076 41.474514
-981.546362 -66.854110 41.136681
-983.148825 -68.002143 40.798848
-984.751288 -69.150177 40.461016
-986.353751 -70.298210 40.123183
-987.956215 -71.446243 39.785350
-989.558678 -72.594277 39.447518
-991.161141 -73.742310 39.109685
-992.763604 -74.890343 38.771852
-994.366068 -76.038377 38.434019
-995.968531 -77.186410 38.096187
-997.570994 -78.334443 37.758354
-999.173457 -79.482477 37.420521
-1000.775920 -80.630510 37.082688
-1002.378384 -81.778544 36.744856
-1003.980847 -82.926577 36.407023
-1005.583310 -84.074610 36.069190
-1007.185773 -85.222644 35.731357
-1008.788237 -86.370677 35.393525
-1010.390700 -87.518710 35.055692
-1011.993163 -88.666744 34.717859
-1013.595626 -89.814777 34.380027
-1015.198090 -90.962810 34.042194
-1016.800553 -92.110844 33.704361
-1018.403016 -93.258877 33.366528
-1020.005479 -94.406911 33.028696
-1021.607943 -95.554944 32.690863
-1023.210406 -96.702977 32.353030
-1024.812869 -97.851011 32.015197
-1026.415332 -98.999044 31.677365
-1028.017796 -100.147077 31.339532
-1029.620259 -101.295111 31.001699
